34.7159538269043	38.4485206604004	276.834869384766
34.3545303344727	40.0967063903809	275.938720703125
35.3644142150879	36.7412757873535	277.620697021484
34.9962272644043	37.6740608215332	277.233825683594
35.9044494628906	36.8323135375977	277.220794677734
35.5752143859863	37.7235260009766	276.867126464844
34.9674568176270	33.6911048889160	278.429687500000
34.5954322814941	34.9969406127930	277.973480224609
36.1520042419434	33.6299095153809	278.741455078125
35.2837448120117	35.2478256225586	278.200561523438
35.0685386657715	32.5898818969727	278.766021728516
35.8087921142578	32.4738998413086	279.028686523438
34.5299644470215	32.4802322387695	278.272155761719
34.5947875976563	31.6204795837402	278.553802490234
35.0699691772461	31.7243270874023	279.013732910156
35.7018623352051	31.6539783477783	279.233337402344
34.6984329223633	31.2492256164551	277.368927001953
34.4637870788574	31.4373931884766	277.942077636719
34.3853759765625	32.2921562194824	277.641632080078
34.6471443176270	32.1055297851563	277.059722900391
35.2139244079590	33.0504074096680	276.333312988281
34.9694633483887	34.3417472839356	275.903930664063
35.8932723999023	30.9580554962158	277.001831054688
35.2422981262207	31.1030178070068	277.025451660156
35.2574424743652	31.9604911804199	276.712890625000
36.0057029724121	31.7693080902100	276.706909179688
34.8163452148438	30.0926380157471	277.832275390625
34.7434158325195	30.5860271453857	277.618041992188
35.2497444152832	30.4457359313965	277.277618408203
35.2910804748535	29.9580078125000	277.497650146484
35.8579978942871	30.3313865661621	277.241302490234
35.8571434020996	29.8605232238770	277.448089599609
36.3732643127441	30.2258434295654	277.530975341797
36.3354225158691	29.7925434112549	277.708709716797
36.4410018920898	30.7842159271240	277.322570800781
36.7877693176270	30.6814250946045	277.844146728516
36.6983947753906	30.1914978027344	278.016540527344
36.6322174072266	29.7992439270020	278.155395507813
36.6060104370117	31.4442424774170	277.091125488281
36.9706344604492	31.2235012054443	277.660095214844
37.0242843627930	32.0172805786133	276.928771972656
37.3621063232422	31.6760120391846	277.515594482422
37.6751022338867	32.7583923339844	276.638458251953
37.8317413330078	32.2299957275391	276.949493408203
38.7302131652832	32.6498794555664	276.739074707031
38.7747879028320	32.2522544860840	276.933135986328
38.8750267028809	31.9921569824219	277.295471191406
38.0383605957031	31.9160575866699	277.433349609375
40.4452056884766	32.4882125854492	276.318786621094
40.4490242004395	32.1786270141602	276.390991210938
39.6649093627930	32.2218399047852	276.722106933594
39.6584358215332	32.5585060119629	276.600769042969
40.4937515258789	31.9408607482910	276.605468750000
39.7178726196289	31.9860515594482	276.994018554688
38.1260452270508	31.8909072875977	277.937072753906
37.4622154235840	31.6687049865723	278.079895019531
38.9468078613281	31.9568862915039	277.716735839844
38.9685668945313	32.1391716003418	278.100494384766
38.0641860961914	32.1435089111328	278.365173339844
37.3209152221680	31.9648532867432	278.540893554688
40.5456047058106	31.8543014526367	276.917968750000
39.7800254821777	31.9309730529785	277.347045898438
40.6105690002441	31.9211292266846	277.234802246094
39.8435096740723	32.0511131286621	277.688629150391
38.9368476867676	33.4155082702637	277.053833007813
38.8072738647461	33.0742950439453	276.794067382813
37.8050804138184	33.3398437500000	276.677246093750
37.9959487915039	33.7963714599609	276.980895996094
37.0727691650391	34.7311172485352	277.814147949219
38.0139427185059	34.0138359069824	277.934082031250
38.0754356384277	34.0316200256348	277.434204101563
37.2368583679199	34.7182655334473	277.255706787109
39.0508079528809	33.5384101867676	277.860382080078
39.0296401977539	33.5798721313477	277.439544677734
36.6417121887207	35.6952819824219	276.975982666016
36.3790283203125	35.7521667480469	277.554565429688
36.2446937561035	36.7347984313965	276.639739990234
31.0965862274170	39.6451377868652	274.851196289063
31.1366500854492	39.4219818115234	274.311157226563
31.8681621551514	38.8687362670898	274.664794921875
31.8534889221191	39.1568717956543	275.203002929688
31.3599433898926	39.4574165344238	273.767150878906
32.1139602661133	38.8573036193848	274.100402832031
28.7843017578125	40.9802589416504	274.078735351563
28.8587951660156	40.8970527648926	273.542114257813
30.1945056915283	40.0706367492676	273.941162109375
30.1357040405273	40.2238121032715	274.482147216797
29.0579280853272	41.0554885864258	273.055999755859
30.4044342041016	40.1640739440918	273.423095703125
31.9986324310303	40.2672157287598	273.202331542969
32.8630180358887	39.7119827270508	273.431976318359
32.5193901062012	39.1504631042481	273.664703369141
31.7013053894043	39.7620429992676	273.370239257813
32.0753974914551	41.3742904663086	273.648925781250
32.7502288818359	41.0514259338379	273.720153808594
32.8819618225098	40.4362030029297	273.450469970703
32.1105346679688	40.8655929565430	273.307220458984
33.2790718078613	41.0441780090332	273.729766845703
33.5252189636231	40.3821754455566	273.530242919922
29.7927513122559	42.7476425170898	273.390441894531
31.1716098785400	41.9308013916016	273.544769287109
31.1490936279297	41.5123939514160	273.142944335938
29.7528743743897	42.4009399414063	272.945678710938
30.9935894012451	40.9846191406250	272.967895507813
29.5911254882813	41.9184646606445	272.712493896484
29.3316192626953	41.4295272827148	272.757568359375
30.7097816467285	40.4971961975098	273.073425292969
24.6958675384522	43.4227638244629	273.898864746094
24.6421127319336	43.0018386840820	273.595092773438
26.9267883300781	42.1898269653320	274.087371826172
27.0562629699707	42.6299018859863	274.374053955078
24.6793975830078	42.7739982604981	273.136535644531
26.9017238616943	41.9264488220215	273.627868652344
28.8591518402100	41.2951965332031	274.521026611328
29.0452709197998	41.7628250122070	274.764038085938
31.4798679351807	40.6346549987793	275.345611572266
30.4603500366211	41.0973167419434	275.079010009766
30.2468376159668	40.5956726074219	274.895812988281
31.2494316101074	40.0826034545898	275.230895996094
27.2583618164063	43.1462402343750	274.404602050781
24.8315486907959	43.9423828125000	273.959289550781
29.2878036499023	42.2758255004883	274.734130859375
29.5275783538818	42.6829490661621	274.441986083984
27.4788436889648	43.5902709960938	274.169067382813
25.0124320983887	44.4136428833008	273.757446289063
30.6967239379883	41.6148033142090	274.967407226563
31.6712322235107	41.1783218383789	275.139587402344
31.8264083862305	41.5530624389648	274.700683593750
30.9149608612061	41.9950408935547	274.605834960938
24.9759426116943	43.0631408691406	272.216979980469
24.8024368286133	42.8005485534668	272.633666992188
22.5325489044189	43.2875442504883	272.097778320313
22.7053279876709	43.5570831298828	271.704193115234
22.3719425201416	43.2492599487305	272.574615478516
20.1546554565430	43.4376983642578	271.742431640625
20.3474922180176	43.4879226684570	271.300018310547
20.5172538757324	43.7584495544434	270.934814453125
22.2670059204102	43.4632530212402	273.010925292969
19.9893817901611	43.6313476562500	272.147979736328
22.2418422698975	43.8732681274414	273.300811767578
19.8918285369873	44.0182914733887	272.416320800781
27.1805686950684	42.1304702758789	272.655151367188
26.9961261749268	41.9090385437012	273.104492187500
32.0754127502441	39.6706542968750	275.552398681641
32.3573570251465	40.3183517456055	275.597778320313
35.9591369628906	37.6041755676270	276.280090332031
35.1831626892090	41.8164138793945	274.896057128906
35.0074615478516	40.9130401611328	275.285797119141
35.2550239562988	40.6959266662598	274.868591308594
35.3800697326660	41.5784683227539	274.548797607422
35.2142410278320	40.4848861694336	274.361328125000
35.3517646789551	41.3714637756348	274.107971191406
35.5570259094238	42.0602684020996	273.814788818359
35.5741462707520	42.2840270996094	274.194946289063
35.8409538269043	42.6016044616699	273.439331054688
35.8480911254883	42.8513641357422	273.758605957031
35.6855888366699	43.1271781921387	273.971801757813
35.4026451110840	42.5426177978516	274.475219726563
35.0467681884766	43.4670257568359	273.869171142578
35.3866157531738	43.3500900268555	274.005889892578
35.7946090698242	43.8538131713867	273.329956054688
35.4810943603516	43.9515075683594	273.177856445313
36.0725479125977	43.6334877014160	273.341400146484
36.5916862487793	44.0461769104004	272.586669921875
36.3262977600098	44.2618179321289	272.550231933594
36.0275611877441	44.3454437255859	272.401245117188
36.2346572875977	43.0768470764160	272.943298339844
36.2303237915039	43.3477516174316	273.195495605469
36.7589073181152	43.4747161865234	272.301269531250
36.7470664978027	43.7577819824219	272.492889404297
35.3710784912109	42.4375457763672	272.842712402344
35.8149528503418	42.8481483459473	272.404235839844
36.0793266296387	42.8973503112793	272.653656005859
35.6620483398438	42.4527740478516	273.105560302734
36.3687171936035	43.1965179443359	271.834838867188
36.6179122924805	43.2723693847656	272.060089111328
37.3904266357422	43.7806205749512	271.518859863281
37.3787612915039	44.0675544738770	271.669586181641
37.9401321411133	44.0593338012695	270.712890625000
37.9247169494629	44.3519287109375	270.839782714844
37.7542304992676	44.6347541809082	270.906616210938
37.2215080261231	44.3532104492188	271.740417480469
38.2014732360840	44.6801223754883	270.113128662109
38.0010490417481	44.9654655456543	270.179779052734
38.2364997863770	44.3710784912109	270.002136230469
38.3441162109375	44.6786651611328	269.400787353516
38.2755050659180	45.0101242065430	269.486877441406
38.0353622436523	45.3058471679688	269.542663574219
38.3958168029785	44.9214134216309	268.894958496094
38.2850685119629	45.2762260437012	268.931274414063
38.5613784790039	45.0423393249512	268.459594726563
38.4210586547852	45.4086380004883	268.432342529297
37.9929809570313	45.9186363220215	268.220977783203
37.9909706115723	45.6075935363770	268.942687988281
36.6265640258789	47.0210914611816	267.347778320313
36.8316535949707	46.5543441772461	267.948364257813
37.1694335937500	46.5899810791016	267.898498535156
36.9202880859375	47.0740470886231	267.308898925781
37.0466499328613	46.1285514831543	268.478576660156
37.4299621582031	46.1352996826172	268.434478759766
37.4933547973633	46.5207214355469	267.718414306641
37.1924743652344	47.0143356323242	267.168975830078
36.9818229675293	47.8017578125000	265.611114501953
36.9997329711914	47.4532699584961	266.483337402344
37.1455268859863	47.2861099243164	266.317047119141
37.1080093383789	47.6234436035156	265.486480712891
37.3494071960449	46.8722114562988	266.949279785156
37.3686332702637	46.6773376464844	266.728271484375
37.1661300659180	47.0668640136719	266.145812988281
37.1207504272461	47.3991203308106	265.353942871094
37.6503677368164	46.4225654602051	267.414855957031
37.6583099365234	46.2705993652344	267.132995605469
38.0566596984863	45.9896621704102	267.646118164063
38.0311737060547	45.8843765258789	267.321166992188
36.7578048706055	47.5227470397949	266.590148925781
36.7679328918457	47.8827438354492	265.689636230469
36.5322456359863	47.8456916809082	265.706726074219
36.4962501525879	47.4729080200195	266.617492675781
37.5951728820801	45.7816505432129	268.989807128906
37.2205390930176	45.7797012329102	268.994079589844
37.3309593200684	45.4723129272461	269.531433105469
37.6879425048828	45.4685897827148	269.564971923828
36.7270965576172	45.6959686279297	268.263061523438
36.8713836669922	45.3560066223145	268.764526367188
36.9600028991699	45.6180953979492	268.909790039063
36.7971649169922	45.9610519409180	268.409698486328
36.9442977905273	45.0681762695313	269.282043457031
37.0619468688965	45.3210830688477	269.426330566406
36.4106445312500	46.8424186706543	267.286254882813
36.5983772277832	46.3789978027344	267.884826660156
36.3231391906738	46.5944595336914	267.154663085938
36.5247421264648	46.1198844909668	267.742340087891
38.9762649536133	45.3047409057617	266.979492187500
38.4872322082520	45.5536499023438	267.255920410156
38.5664482116699	45.6476287841797	267.525634765625
39.0959396362305	45.4073219299316	267.183502197266
38.6680908203125	45.5845870971680	267.821807861328
39.2411003112793	45.3750801086426	267.398834228516
40.1789360046387	45.3063659667969	266.181610107422
40.0042877197266	45.3025741577148	266.045227050781
39.5822982788086	45.2780990600586	266.698364257813
39.7504539489746	45.2680892944336	266.868408203125
39.8636322021484	45.1903915405273	265.914581298828
39.4432144165039	45.1670036315918	266.538146972656
39.9112243652344	45.1226234436035	266.995391845703
40.3405532836914	45.1893234252930	266.282440185547
39.3992347717285	45.1913604736328	267.553710937500
39.4910011291504	44.9295883178711	267.611175537109
40.0030059814453	44.8982543945313	267.046051025391
40.4384765625000	44.9964828491211	266.323455810547
38.8504676818848	45.3285751342773	268.003173828125
38.9623947143555	45.0147552490234	268.057098388672
38.2937431335449	44.6470680236816	268.805419921875
38.4922981262207	44.7668151855469	268.390045166016
38.2079048156738	44.4165039062500	269.287567138672
37.9241180419922	44.2886543273926	269.171051025391
38.0278472900391	44.5162315368652	268.683227539063
38.2579307556152	44.6307296752930	268.257690429688
37.5739517211914	44.3322792053223	269.082611083984
37.6656875610352	44.5697593688965	268.560943603516
37.2439613342285	44.5133209228516	269.064147949219
37.2845993041992	44.7768592834473	268.504974365234
37.3794860839844	45.0489845275879	267.814758300781
37.9028053283691	44.6868209838867	268.087554931641
38.8861045837402	44.5218048095703	267.094207763672
39.0693359375000	44.4581604003906	267.265869140625
38.4296836853027	44.5981292724609	267.683898925781
38.1968460083008	44.7304458618164	267.471038818359
39.2849960327148	44.5073051452637	267.427459716797
38.7097740173340	44.5952987670898	267.860168457031
37.7662315368652	45.4700012207031	267.141296386719
38.2734909057617	45.1324920654297	267.093353271484
38.1805419921875	44.9155998229981	267.236785888672
37.5815849304199	45.2643203735352	267.326416015625
38.8190803527832	44.8808021545410	266.840850830078
38.8087501525879	44.6726722717285	266.935272216797
37.0490074157715	46.2785758972168	266.558227539063
37.3561859130859	45.8632545471191	266.952789306641
37.1248931884766	45.7094268798828	267.096252441406
36.8021011352539	46.1743507385254	266.648803710938
36.8764991760254	45.6785163879395	267.335601806641
36.5644874572754	46.1921501159668	266.810424804688
36.8808250427246	45.3969383239746	268.073364257813
36.6373558044434	45.8534011840820	267.556488037109
36.3871612548828	46.3518028259277	266.988250732422
36.9906997680664	45.0591735839844	268.603881835938
37.0155563354492	44.7783889770508	269.143493652344
37.4670791625977	44.0573272705078	269.659484863281
37.1612358093262	44.2363395690918	269.644439697266
37.8030853271484	44.0132560729981	269.743560791016
37.5216140747070	43.7348747253418	270.405364990234
37.2022094726563	43.7860717773438	270.304199218750
36.9139404296875	43.9703826904297	270.278778076172
35.8108901977539	43.4748725891113	271.654632568359
36.4203300476074	43.7308692932129	270.970825195313
36.6921310424805	43.5381469726563	271.007995605469
36.0735015869141	43.2726860046387	271.688690185547
36.9946441650391	43.4767799377441	271.136169433594
37.2478561401367	43.5674591064453	271.323608398438
37.7897834777832	43.8364906311035	270.554809570313
38.0851287841797	44.1294364929199	269.868408203125
36.9512863159180	44.5608024597168	271.707611083984
37.4651985168457	44.8285865783691	270.893066406250
37.1386947631836	44.8835716247559	270.801849365234
36.6441612243652	44.6329727172852	271.583282470703
37.6851043701172	45.1402244567871	270.185241699219
37.3424606323242	45.1674385070801	270.122741699219
35.6390151977539	44.0447921752930	271.936706542969
35.7778167724609	44.2607917785645	272.175964355469
36.3833999633789	44.5356140136719	271.394348144531
36.2374992370606	44.3081741333008	271.194610595703
36.8631210327148	44.7739410400391	270.648803710938
36.7114639282227	44.5409774780273	270.479797363281
36.2551460266113	44.0130538940430	271.040679931641
35.6541748046875	43.7570800781250	271.747558593750
36.7350654602051	44.2468681335449	270.344909667969
35.2219886779785	43.8912010192871	272.926330566406
34.7672119140625	43.4437637329102	273.599792480469
35.0774955749512	43.7019233703613	272.643280029297
34.6090240478516	43.2955818176270	273.272186279297
35.0877990722656	43.4339599609375	272.401458740234
35.2427139282227	43.1583404541016	272.260253906250
34.7669715881348	42.7910385131836	272.765991210938
34.6115303039551	43.0571212768555	272.969177246094
36.9640655517578	44.5045890808106	269.715270996094
36.9242973327637	44.7949409484863	269.845245361328
37.0657577514648	45.0368041992188	269.996398925781
35.0448951721191	42.5648574829102	272.722320556641
34.6801567077637	42.1309204101563	273.074035644531
34.3918800354004	42.3863296508789	273.164611816406
35.0286254882813	41.9607620239258	273.172210693359
34.7277755737305	41.3227157592773	273.409240722656
34.3545532226563	41.5803871154785	273.325927734375
34.0598678588867	41.9180374145508	273.456665039063
35.3509368896484	41.9403991699219	273.443420410156
35.0998611450195	41.2634277343750	273.695251464844
33.7031555175781	41.3998184204102	273.644409179688
33.9941635131836	40.8979148864746	273.482299804688
34.3985290527344	40.4447822570801	273.569763183594
34.2374076843262	42.6473846435547	273.429626464844
34.2430267333984	42.8484725952148	273.794281005859
33.9038276672363	42.1967849731445	273.780181884766
33.9076766967773	42.3451766967773	274.210754394531
34.4130935668945	42.9381713867188	274.167694091797
34.7115821838379	42.9077987670898	274.452148437500
34.0769195556641	42.3300476074219	274.642578125000
34.3928375244141	42.2039985656738	274.953826904297
33.5240058898926	41.8029479980469	274.523681640625
33.6670799255371	41.6124801635742	275.035949707031
33.0656776428223	41.4078559875488	274.708709716797
33.1365356445313	41.0368804931641	275.282379150391
33.9989395141602	41.2960090637207	275.415466308594
35.0790481567383	42.7653312683106	274.563537597656
34.8078575134277	42.0286865234375	275.041748046875
34.5289840698242	41.0923690795898	275.489044189453
33.5408859252930	41.7259559631348	274.022857666016
33.1193428039551	41.3986663818359	274.157775878906
34.8807144165039	40.3535499572754	273.895324707031
35.5094184875488	42.9461708068848	272.263336181641
4.80339860916138	36.9277915954590	260.444122314453
4.08518743515015	36.6004219055176	259.332122802734
4.03180694580078	36.1889648437500	259.101287841797
4.33522796630859	36.2068138122559	259.672088623047
3.76375842094421	36.1888122558594	258.193725585938
3.85039305686951	35.8827476501465	258.156005859375
4.04592275619507	35.6547431945801	258.065643310547
4.10691785812378	35.8998870849609	258.818023681641
4.26843118667603	35.8827514648438	259.200744628906
3.95163249969482	35.7315216064453	256.884399414063
4.06310987472534	35.4548110961914	256.949462890625
4.52774858474731	35.2701683044434	255.491912841797
4.61403036117554	34.9942626953125	255.600860595703
4.81736946105957	34.7853622436523	255.713653564453
4.28888273239136	35.2482948303223	256.991424560547
6.10218477249146	34.5062904357910	252.859542846680
6.16043090820313	34.2331542968750	252.924591064453
5.36624717712402	34.5724754333496	254.231750488281
5.29964065551758	34.8478927612305	254.129745483398
6.31775426864624	34.0178070068359	253.041870117188
5.54279041290283	34.3598136901856	254.362167358398
4.77378273010254	35.7347755432129	255.395782470703
5.53649950027466	35.2991180419922	254.109771728516
5.36118173599243	35.1148262023926	254.084884643555
4.58675909042358	35.5441780090332	255.415115356445
6.30590391159058	34.9369583129883	252.942962646484
6.15362977981567	34.7623023986816	252.867660522461
7.55088138580322	34.5922241210938	251.172027587891
7.43187046051025	34.4452781677246	250.978378295898
6.85029268264771	34.5316429138184	251.808731079102
6.98738813400269	34.6947898864746	251.942993164063
7.39737749099731	34.2054481506348	250.839096069336
6.80600357055664	34.2835006713867	251.736206054688
5.33502912521362	35.6708831787109	255.552154541016
6.05424928665161	35.2401771545410	254.337280273438
5.79255914688110	35.3408660888672	254.204940795898
5.04988431930542	35.7752647399902	255.449401855469
6.77382516860962	34.8862686157227	253.204544067383
6.53475189208984	34.9799804687500	253.068038940430
4.15686130523682	36.2012138366699	256.742126464844
4.43119287490845	36.2516250610352	256.733489990234
3.93830156326294	36.6977424621582	258.029632568359
4.20201158523560	36.7660217285156	257.950592041016
4.51968240737915	36.6861877441406	257.915679931641
4.73453426361084	36.1598434448242	256.773315429688
4.28928804397583	37.2395973205566	259.144866943359
4.54947376251221	37.3261795043945	259.001617431641
4.94202756881714	37.8636970520020	260.057678222656
5.20607709884644	37.9589080810547	259.862854003906
5.54619359970093	37.8622970581055	259.726257324219
4.87991237640381	37.2406082153320	258.905609130859
5.59389019012451	38.6175384521484	260.794891357422
5.86570835113525	38.7047538757324	260.562591552734
6.24188852310181	39.5691566467285	261.528259277344
6.52244806289673	39.6402015686035	261.265411376953
6.87626123428345	39.5346450805664	261.093536376953
6.21162176132202	38.6053199768066	260.405578613281
7.21407222747803	39.2823028564453	261.063201904297
6.55868101119995	38.3398208618164	260.364654541016
7.46144819259644	38.9692573547363	261.198547363281
6.84400510787964	38.0040817260742	260.491638183594
6.13793325424194	36.9767646789551	259.649871826172
5.89132595062256	37.5750465393066	259.668579101563
5.99379348754883	35.2692108154297	258.934875488281
6.05131530761719	36.1145362854004	259.375366210938
6.37655878067017	36.1174392700195	259.841705322266
6.29056739807129	35.2438659667969	259.348571777344
6.61284160614014	36.9179115295410	260.293212890625
6.64913702011108	36.7906036376953	260.737548828125
6.42489337921143	36.0116195678711	260.276336669922
6.34041023254395	35.1351013183594	259.768127441406
7.46821928024292	38.4941291809082	261.846862792969
6.98629760742188	37.5848503112793	261.233581542969
7.01808977127075	37.7512779235840	260.839233398438
7.55593967437744	38.6872138977051	261.493530273438
4.95567750930786	36.1897621154785	257.939819335938
4.80815839767456	36.4763755798340	257.923706054688
5.19709110260010	36.9944038391113	258.862884521484
5.33078670501709	36.6277465820313	258.806274414063
4.90640163421631	35.9347953796387	258.857666015625
4.72752952575684	35.9296073913574	258.567443847656
5.10605716705322	36.2268943786621	258.656188964844
5.44336032867432	36.2803001403809	259.051818847656
4.64009666442871	35.6645240783691	257.938323974609
4.87931537628174	35.8921203613281	257.934814453125
5.51727914810181	35.1473884582520	258.621368408203
5.52225589752197	35.8741607666016	258.988403320313
4.99859762191773	34.9685859680176	258.493652343750
4.97023200988770	35.6119270324707	258.806915283203
9.20800399780273	41.2383728027344	263.045959472656
8.19767856597900	40.0821228027344	262.036254882813
7.97101926803589	40.4084777832031	261.907348632813
8.99565315246582	41.5882911682129	262.942230224609
7.63694667816162	40.6748466491699	261.944519042969
8.67063140869141	41.8780746459961	263.008789062500
11.9803886413574	43.8347702026367	265.661315917969
12.2309036254883	43.5037956237793	265.509552001953
10.4256553649902	42.6611289978027	264.167572021484
10.1287288665771	42.9690093994141	264.283782958984
12.3782854080200	43.1072463989258	265.535400390625
10.6149711608887	42.2867507934570	264.225463867188
8.02107429504395	41.9740371704102	263.563354492188
9.52388477325440	43.0742492675781	264.903289794922
9.78940582275391	43.1279220581055	264.557128906250
8.30390357971191	42.0262908935547	263.240661621094
11.4346208572388	43.9749679565430	266.323242187500
11.6829137802124	44.0140647888184	265.962432861328
7.27044153213501	40.8012771606445	262.140930175781
6.98383092880249	40.7436866760254	262.434539794922
4.14853715896606	36.9832496643066	259.298034667969
4.80730485916138	37.5663146972656	260.275695800781
3.79042959213257	36.4856719970703	258.133361816406
3.98638606071472	36.0065460205078	256.803222656250
5.46481609344482	38.3524169921875	261.060852050781
6.11656045913696	39.3274497985840	261.824340820313
5.54297542572022	38.0080299377441	261.330444335938
6.18451023101807	39.0076789855957	262.092346191406
5.88454866409302	37.7488098144531	261.579101562500
6.44972515106201	38.7136421203613	262.271118164063
5.47424221038818	36.8630485534668	261.027313232422
5.98330307006836	36.7557601928711	261.172149658203
6.32323169708252	37.5813713073731	261.668945312500
6.82389974594116	38.5072517395020	262.300720214844
6.95743465423584	40.1488800048828	263.011535644531
6.87633991241455	40.4935646057129	262.750091552734
8.02670574188232	41.3198890686035	264.131683349609
7.93173074722290	41.7011566162109	263.887390136719
7.20254325866699	39.8238639831543	263.151245117188
8.26247596740723	40.9623870849609	264.229309082031
7.54071187973023	39.5913696289063	263.132568359375
8.57684135437012	40.7080154418945	264.161682128906
4.98400068283081	35.9520034790039	256.845001220703
5.54647159576416	35.4524955749512	255.671890258789
5.10752964019775	35.6846542358398	256.920715332031
5.63172626495361	35.1815681457520	255.776992797852
6.24371671676636	35.0217819213867	254.467803955078
6.95225477218628	34.6732444763184	253.313598632813
6.31421613693237	34.7489318847656	254.565216064453
7.02319812774658	34.4031982421875	253.373199462891
6.95912742614746	34.1478118896484	253.369781494141
7.60654687881470	33.9029541015625	252.241317749023
7.66395330429077	34.1523590087891	252.295364379883
6.78575658798218	33.9713630676270	253.302597045898
7.44466352462769	33.7325744628906	252.136215209961
7.99282455444336	33.6141662597656	251.177261352539
8.15200519561768	33.7776756286621	251.313339233398
8.20784091949463	34.0224647521973	251.416412353516
8.42717552185059	33.6141052246094	250.481597900391
8.59530258178711	33.7766036987305	250.637756347656
8.78247928619385	33.6669578552246	249.952453613281
8.96910190582275	33.8230781555176	250.112670898438
9.13663578033447	34.2157402038574	250.261566162109
8.66007423400879	34.0358581542969	250.783340454102
8.41708183288574	33.8347434997559	249.674530029297
8.58031272888184	33.6770439147949	249.791915893555
8.22004413604736	33.6009445190430	250.318603515625
8.03744602203369	33.7348327636719	250.190536499023
7.77990961074829	33.5852432250977	251.019714355469
7.57856512069702	33.6966629028320	250.882461547852
6.54842662811279	33.9253959655762	253.181259155273
7.22216558456421	33.6924552917481	251.992553710938
7.00649642944336	33.7904930114746	251.850921630859
6.24033546447754	34.4925651550293	254.604629516602
6.05088758468628	34.3158798217773	254.578674316406
5.56085968017578	34.9259147644043	255.840652465820
5.36389255523682	34.7481346130371	255.850799560547
4.86114311218262	35.2322959899902	257.004364013672
5.05598878860474	35.4224700927734	256.974975585938
5.79424381256104	34.2692947387695	254.488739013672
5.09154319763184	34.6987686157227	255.803695678711
4.57990503311157	35.1703567504883	257.009582519531
4.33313179016113	35.5788383483887	257.984252929688
7.59237766265869	34.4173469543457	252.292160034180
7.42116546630859	34.6291809082031	252.225296020508
8.13108825683594	34.2836036682129	251.477081298828
7.95824670791626	34.4972839355469	251.463088989258
7.19766759872437	34.7279777526856	252.096801757813
7.74410963058472	34.6079826354981	251.350402832031
8.31394195556641	34.8472633361816	250.424667358398
7.98817205429077	34.6408767700195	250.676422119141
8.15688896179199	34.6376190185547	250.870498657227
8.45721626281738	34.8247528076172	250.622802734375
8.36485671997070	34.5175247192383	250.961929321289
8.65748023986816	34.7029533386231	250.699066162109
8.87379932403565	34.5002975463867	250.612869262695
8.55563259124756	34.3028068542481	250.919631958008
7.90507936477661	34.5180587768555	250.428939819336
8.27563858032227	34.7602462768555	250.139160156250
8.42619419097900	34.5657005310059	249.708068847656
7.90023422241211	34.2891235351563	250.213180541992
7.93305635452271	33.9908218383789	250.142471313477
8.34875106811523	34.1174087524414	249.639602661133
7.44675397872925	33.9284591674805	250.811431884766
9.12582969665527	34.5318794250488	248.818008422852
9.04602718353272	34.2813720703125	248.773468017578
8.70917606353760	34.1995391845703	249.188003540039
8.79525756835938	34.4887886047363	249.204986572266
9.08306121826172	34.0224914550781	248.789916992188
8.75630187988281	33.9280128479004	249.217376708984
9.87427902221680	34.7554130554199	248.084106445313
9.79778480529785	34.5581359863281	247.982208251953
9.39504909515381	34.3961448669434	248.385101318359
9.47255134582520	34.6232376098633	248.460937500000
9.81967544555664	34.3227615356445	247.946105957031
9.42503833770752	34.1451034545898	248.378051757813
10.0838384628296	33.9932098388672	248.083572387695
9.72004985809326	33.8388938903809	248.568176269531
9.54708766937256	33.9446792602539	248.447479248047
9.92659091949463	34.1191825866699	247.985733032227
9.40354537963867	33.7567329406738	249.019775390625
9.21802902221680	33.8337249755859	248.882202148438
10.8798885345459	35.1655044555664	247.219360351563
10.8161497116089	35.0566787719727	247.079116821289
10.2823057174683	34.7779312133789	247.534347534180
10.3564224243164	34.9321556091309	247.654296875000
10.8184833526611	34.8850517272949	246.975402832031
10.2933597564697	34.5741653442383	247.467483520508
9.65142345428467	34.7538948059082	248.583663940430
10.0431146621704	34.8494110107422	248.228088378906
9.31733226776123	34.6956939697266	248.899078369141
9.54770565032959	34.7319641113281	249.000228881836
9.86507606506348	34.7546844482422	248.715042114258
10.2419672012329	34.8179664611816	248.366195678711
10.5090656280518	34.9859275817871	247.797744750977
10.6866092681885	34.9296684265137	247.918548583984
11.1689758300781	35.1104316711426	247.443771362305
11.0114192962646	35.1824188232422	247.354156494141
11.3627300262451	35.2398033142090	246.507781982422
11.3688554763794	35.0079536437988	246.437500000000
10.8753566741943	34.6914367675781	246.942077636719
11.9774293899536	35.6909790039063	246.034500122070
11.8220643997192	35.2596015930176	245.969345092773
11.8316221237183	35.0189361572266	245.979598999023
11.4233512878418	34.8059921264648	246.452239990234
10.9794330596924	34.5313377380371	246.979354858398
11.3931951522827	35.4667739868164	246.844238281250
11.3543233871460	35.3948097229004	246.670989990234
11.8598079681396	35.8360862731934	246.576675415039
11.8525505065918	35.7989997863770	246.378326416016
10.5169754028320	34.2400360107422	247.540222167969
10.3802852630615	34.3792190551758	247.472290039063
9.58950042724609	33.8117027282715	249.159164428711
9.28936386108398	33.8170394897461	249.623153686523
9.09929561614990	33.7102584838867	249.475646972656
9.74332427978516	33.9697418212891	249.250701904297
9.45355033874512	34.0326461791992	249.697921752930
9.89876174926758	33.8536911010742	248.704895019531
10.2522525787354	33.9755210876465	248.213348388672
10.3961267471313	34.0603599548340	248.340881347656
10.0477313995361	33.9734649658203	248.818115234375
9.84062862396240	34.4236984252930	249.198684692383
9.59394454956055	34.5095901489258	249.497329711914
9.57437896728516	34.2792434692383	249.627426147461
9.83668708801270	34.1888351440430	249.257537841797
9.44473743438721	34.6976547241211	249.753570556641
9.40506362915039	34.4901237487793	249.952880859375
10.1355781555176	34.1692314147949	248.875366210938
10.4829292297363	34.2287063598633	248.433700561523
10.4893827438355	34.4448928833008	248.474182128906
10.1377353668213	34.4002418518066	248.873336791992
8.90410327911377	33.7527160644531	249.324295043945
9.13171768188477	34.8960304260254	249.503738403320
9.28598594665527	34.7584648132324	249.267791748047
9.02612781524658	34.6897583007813	249.217697143555
8.84455585479736	34.8197326660156	249.508972167969
9.23627853393555	35.5967521667481	249.830047607422
9.12910270690918	35.1937828063965	249.687133789063
8.87285423278809	35.1673011779785	249.705932617188
9.01441287994385	35.6210556030273	249.846389770508
8.63883399963379	35.1251831054688	249.848526000977
8.82621002197266	35.6294479370117	249.968475341797
9.29312324523926	36.6640739440918	250.199508666992
9.46202850341797	36.6154670715332	250.077957153320
9.20463848114014	36.1005439758301	249.965484619141
9.03211021423340	36.1344223022461	250.081054687500
9.65010356903076	36.5289268493652	250.052642822266
9.40531826019287	36.0407676696777	249.949783325195
9.34189414978027	34.8444213867188	249.596343994141
9.33090019226074	35.1392898559570	249.777496337891
9.43351078033447	35.0193061828613	249.944976806641
9.42178630828857	35.5267219543457	249.920623779297
9.52340412139893	35.4272766113281	250.087890625000
9.80989742279053	36.4335517883301	250.134780883789
9.57595157623291	35.9568023681641	250.038864135742
9.90390968322754	36.3543128967285	250.296920776367
9.67348480224609	35.8696098327637	250.203674316406
9.63364124298096	37.2431106567383	250.334197998047
9.81294822692871	37.1786613464356	250.179000854492
10.0550727844238	37.9353981018066	250.491424560547
10.2559480667114	37.7301635742188	250.188293457031
10.4236755371094	37.5867652893066	250.119506835938
9.99239730834961	37.0648307800293	250.129547119141
9.18877315521240	36.6529388427734	250.389099121094
9.48591041564941	37.1801185607910	250.540237426758
9.17612743377686	36.5935287475586	250.591506958008
9.44111633300781	37.0690383911133	250.739547729492
9.63984489440918	37.4787826538086	250.959579467773
9.70923423767090	37.6474838256836	250.766891479492
8.94056701660156	36.1427421569824	250.272994995117
8.94622707366943	36.1148185729981	250.483520507813
8.73427677154541	35.6486167907715	250.176010131836
8.74907779693604	35.6467285156250	250.403411865234
8.55316448211670	35.2031860351563	250.360366821289
8.53171730041504	35.1676673889160	250.101455688477
9.48932838439941	34.6854057312012	249.367767333984
9.73652172088623	34.6251754760742	249.106079101563
6.86062145233154	34.0105094909668	251.755325317383
4.36142730712891	35.8129501342773	258.625640869141
4.48637056350708	35.7989692687988	258.919921875000
4.58412885665894	34.8440437316895	258.611572265625
4.53991508483887	35.4818916320801	258.889373779297
4.38510417938232	34.8152885437012	258.945251464844
4.33752346038818	35.5225296020508	259.209716796875
4.47183179855347	34.8841667175293	259.421508789063
4.43496942520142	35.7270812988281	259.708099365234
4.78608131408691	34.9634552001953	259.884643554688
4.78347730636597	35.9504241943359	260.241821289063
5.27244424819946	35.9730606079102	260.608703613281
5.77358388900757	35.9249305725098	260.729614257813
5.23493719100952	34.9763755798340	260.182220458984
5.71527910232544	34.9769287109375	260.258056640625
6.12052154541016	35.0327301025391	260.099243164063
6.19348287582398	35.9349479675293	260.597930908203
6.40571737289429	36.7278785705566	261.052307128906
6.95508241653442	32.5512428283691	258.338317871094
6.46199083328247	34.0357437133789	259.138458251953
6.26167201995850	33.8981437683106	259.491149902344
6.79470157623291	32.3780097961426	258.731933593750
5.87298107147217	33.7898864746094	259.684906005859
6.43309640884399	32.2087898254395	258.977172851563
8.06035614013672	27.3057231903076	257.233032226563
8.57420444488525	27.5536308288574	257.316253662109
7.07792472839356	29.9393730163574	258.211425781250
6.59534072875977	29.7968597412109	258.056579589844
9.00846672058106	27.8697967529297	257.135955810547
7.53504419326782	30.1526546478272	258.120880126953
5.96563291549683	32.0891227722168	258.995758056641
5.50837707519531	32.0295562744141	258.786834716797
7.31166124343872	27.2432498931885	256.398529052734
7.59744548797607	27.1915378570557	256.894683837891
6.21141958236694	29.7603435516357	257.683471679688
6.03033590316773	29.8448448181152	257.204956054688
5.17671871185303	32.0342483520508	258.390045166016
5.06262874603272	32.1168212890625	257.929016113281
7.54578590393066	27.7851753234863	255.455383300781
7.29984807968140	27.4653892517090	255.870773315430
6.12224483489990	30.0455131530762	256.751342773438
6.44118642807007	30.2981986999512	256.437194824219
5.22209453582764	32.2798881530762	257.538208007813
5.59058237075806	32.4725646972656	257.310485839844
6.90270185470581	30.5277843475342	256.352600097656
7.98903560638428	28.1120338439941	255.278610229492
6.06742048263550	32.6334342956543	257.309112548828
6.52791309356689	32.7124023437500	257.520263671875
7.38446235656738	30.6746463775635	256.508026123047
8.50535392761231	28.3614749908447	255.369934082031
9.23528861999512	28.3995265960693	256.207763671875
8.95940399169922	28.4634552001953	255.713439941406
7.76163482666016	30.6949310302734	256.873199462891
7.93724012374878	30.5924282073975	257.344451904297
6.85111284255981	32.6766815185547	257.896972656250
6.39720726013184	34.1580581665039	258.716339111328
6.09935474395752	34.2038307189941	258.325836181641
5.64089632034302	34.1304931640625	258.063598632813
5.14724922180176	33.9870452880859	257.995452880859
8.55931091308594	24.9434051513672	254.955718994141
8.69994640350342	24.7068710327148	255.549591064453
8.71334838867188	25.3283500671387	254.441848754883
9.86766147613525	23.1687965393066	253.377578735352
9.80551052093506	22.7421016693115	253.951263427734
10.0602922439575	22.4993877410889	254.571838378906
9.68347930908203	26.1042518615723	254.193298339844
9.13047599792481	25.7526531219482	254.172897338867
10.8065347671509	24.0848598480225	252.999786376953
10.2416601181030	23.6611728668213	253.042831420898
4.56047105789185	33.7383041381836	258.512207031250
4.75100278854370	33.8404846191406	258.159545898438
4.64679336547852	33.7082901000977	258.973114013672
4.95667600631714	33.7190666198731	259.398559570313
12.1093492507935	23.6511077880859	254.806823730469
10.6094179153442	25.6539344787598	256.040069580078
10.2136278152466	25.2475318908691	256.317352294922
11.7606563568115	23.1875038146973	255.159515380859
9.67115402221680	24.9001998901367	256.324401855469
11.2065792083740	22.7787761688232	255.251800537109
11.2817802429199	20.7878684997559	253.405776977539
11.8439769744873	20.8113479614258	253.822341918945
10.5808038711548	22.5244007110596	255.038925170898
12.2776174545288	19.4840717315674	252.221023559570
12.8412542343140	19.4901294708252	252.588455200195
13.4669599533081	19.7051448822022	252.679779052734
12.4844036102295	21.0621109008789	253.972839355469
13.0239439010620	21.4726257324219	253.820526123047
13.9836359024048	20.0817432403564	252.471923828125
14.2469491958618	20.5491313934326	252.071060180664
13.3260173797607	21.9489498138428	253.435577392578
14.1592025756836	18.5944519042969	251.579620361328
14.6664066314697	18.9280738830566	251.291656494141
14.5919895172119	17.5088787078857	250.703231811523
15.0954008102417	17.7776756286621	250.325439453125
15.4601049423218	18.1595077514648	249.411773681641
14.9172706604004	19.3950958251953	250.829162597656
13.5473270416260	18.4151191711426	251.545867919922
13.9997129440308	17.3627853393555	250.711990356445
12.9907636642456	18.4202308654785	251.205139160156
13.4590635299683	17.3658142089844	250.388458251953
9.11482906341553	24.7005443572998	256.043579101563
10.7519350051880	26.0232295989990	255.552261352539
9.24697685241699	28.1789054870605	256.727294921875
12.1556262969971	24.0632686614990	254.276931762695
11.9057588577271	24.3147583007813	253.709014892578
10.6171379089355	26.2592449188232	254.988723754883
10.2243013381958	26.2854881286621	254.495681762695
11.4119224548340	24.3192367553711	253.247802734375
12.9655170440674	22.6598300933838	252.400894165039
12.4144105911255	22.6694087982178	252.000030517578
13.7713003158569	21.3341007232666	251.170211791992
13.1944265365601	21.3717765808105	250.842620849609
12.5874862670898	21.1275482177734	250.694152832031
11.7927265167236	22.4215583801270	251.808517456055
13.2961111068726	22.3859157562256	252.920425415039
14.1578016281128	21.0162162780762	251.606536865234
7.84768390655518	30.3916873931885	257.799804687500
5.40115165710449	33.7383880615234	259.651794433594
11.9314622879028	19.7116851806641	251.662506103516
12.6366376876831	18.6312065124512	250.631027221680
11.8687372207642	20.1304130554199	251.117553710938
12.5465784072876	19.0547714233398	250.049438476563
13.1036653518677	17.8858509063721	248.750610351563
13.1170511245728	17.5326175689697	249.772583007813
12.1104679107666	20.6588611602783	250.781951904297
12.7300481796265	19.6700477600098	249.764038085938
13.1557340621948	20.1926403045654	249.715225219727
13.5130710601807	19.6181621551514	248.809677124023
13.1391029357910	19.0327854156494	248.773895263672
13.6982307434082	19.3862857818604	247.904449462891
13.3672142028809	18.8673057556152	247.788452148438
13.7917404174805	19.3910732269287	247.005523681641
13.4800300598145	18.9474182128906	246.844451904297
13.4557237625122	18.3743076324463	246.623672485352
13.3501348495483	18.1822185516357	247.574081420898
14.2074298858643	17.4527854919434	246.129135131836
13.7393140792847	17.8277740478516	246.333999633789
13.7295818328857	18.1044597625732	245.507385253906
14.1526365280151	17.7314968109131	245.363296508789
13.4998178482056	18.6213588714600	245.738418579102
13.5792131423950	19.0114707946777	244.888839721680
13.7394313812256	18.5198745727539	244.676712036133
14.1099061965942	18.1378288269043	244.545761108398
14.0284805297852	20.2077217102051	243.309524536133
13.7694206237793	19.5842800140381	244.062545776367
13.9650173187256	19.9918308258057	244.294647216797
14.2968683242798	20.5441055297852	243.557968139648
13.6978960037231	19.4830265045166	245.107589721680
14.0570249557495	19.8120899200439	245.288955688477
14.3641071319580	20.2370967864990	244.478469848633
14.7278003692627	20.6952075958252	243.743713378906
14.5728197097778	19.8999557495117	245.400573730469
14.8706235885620	20.2399921417236	244.567123413086
15.0872707366943	19.7357654571533	245.422790527344
15.3370656967163	20.0140457153320	244.547897338867
15.6202650070190	20.3087577819824	243.760162353516
15.2138090133667	20.6032810211182	243.812179565430
15.5660285949707	18.8590545654297	245.172424316406
15.6698074340820	19.1455669403076	244.222015380859
15.6232576370239	19.6114578247070	244.422821044922
15.4438343048096	19.3510494232178	245.343963623047
15.7915735244751	19.4509315490723	243.379913330078
15.8260850906372	19.8865013122559	243.603042602539
13.8832445144653	19.5312194824219	246.133193969727
14.4001483917236	19.6739158630371	246.262542724609
14.3125638961792	19.5716991424561	247.143417358398
14.8768739700317	19.4566364288330	247.242858886719
14.9448518753052	19.5461940765381	246.323318481445
15.3499126434326	19.1694221496582	246.291168212891
15.5255699157715	18.6587657928467	246.141525268555
15.3147163391113	19.0650100708008	247.264755249023
15.5261087417603	18.5221710205078	247.128890991211
15.4263105392456	18.1500358581543	245.873748779297
15.4204492568970	18.3905296325684	244.933807373047
15.4558029174805	17.9752864837647	246.793182373047
15.1574811935425	17.5525455474854	246.410903930664
15.1059627532959	17.7677879333496	245.588241577148
15.0659570693970	18.0645122528076	244.703414916992
14.5909700393677	17.9762840270996	244.559539794922
14.6476879119873	17.6164894104004	245.397369384766
14.7129354476929	17.3623313903809	246.161285400391
15.1913261413574	17.2989120483398	247.131134033203
14.7500076293945	17.0912513732910	246.815292358398
15.1961431503296	16.7862548828125	247.562011718750
14.7529869079590	16.5880470275879	247.205795288086
14.2194576263428	16.6670913696289	247.235595703125
14.2253589630127	17.1772747039795	246.811340332031
15.4793672561646	17.7625007629395	247.663909912109
15.4822177886963	17.2533245086670	248.245391845703
15.5287141799927	18.3977489471436	248.161865234375
15.4594631195068	18.7400436401367	243.986709594727
15.0627517700195	18.4987869262695	243.783874511719
15.0882234573364	18.9722595214844	242.946578979492
15.5178909301758	19.1182575225830	243.140014648438
15.2805805206299	19.0455055236816	248.281921386719
14.8160400390625	19.4867134094238	248.184936523438
14.6645183563232	19.7503032684326	249.137481689453
15.1409778594971	19.2644424438477	249.345443725586
13.7404375076294	20.4390220642090	249.845642089844
14.3298139572144	20.3606376647949	250.104446411133
14.0736742019653	19.8603725433350	248.939559936523
14.2351884841919	19.6033096313477	248.040100097656
14.7654361724854	19.9610939025879	250.438125610352
15.8615837097168	20.5491580963135	243.106048583984
15.5182886123657	20.9021015167236	243.171417236328
16.0873928070068	20.7315959930420	242.515808105469
15.8024625778198	21.1417560577393	242.583419799805
15.3768644332886	21.3925743103027	242.539520263672
15.0627784729004	21.0768318176270	243.114807128906
16.1082382202148	21.3525810241699	241.978118896484
15.6985025405884	21.6805706024170	241.959213256836
16.3564014434814	20.8596820831299	241.895874023438
16.8100719451904	20.8758964538574	241.076522827148
16.4583110809326	21.5910816192627	241.359786987305
16.0454902648926	21.9689159393311	241.373352050781
17.5639019012451	21.9816246032715	240.042373657227
17.2208023071289	22.3538990020752	240.242111206055
16.8344173431397	21.9445514678955	240.783325195313
17.1741046905518	21.5053749084473	240.540222167969
16.8039169311523	22.6150493621826	240.245742797852
16.4239463806152	22.2789459228516	240.796463012695
14.5840520858765	21.1921234130859	242.093048095703
14.9299354553223	21.4051666259766	242.358474731445
15.2551193237305	21.7593364715576	241.785217285156
14.8985862731934	21.5896568298340	241.506011962891
15.6125183105469	22.0851860046387	241.201171875000
15.2635803222656	21.9436225891113	240.903701782227
14.7303609848022	21.2044219970703	241.200424194336
14.4411525726318	20.8029060363770	241.820785522461
15.0980787277222	21.5596828460693	240.545989990234
15.2003240585327	20.8696937561035	240.121520996094
14.7626543045044	20.6948966979980	241.001007080078
14.5183858871460	20.3429412841797	241.640594482422
16.1859207153320	21.8827857971191	238.935272216797
15.6816368103027	21.4772148132324	239.521987915039
15.5529651641846	21.9190464019775	239.913879394531
16.0423126220703	22.2768535614014	239.306549072266
15.6877450942993	22.2615489959717	240.298187255859
16.1294612884522	22.5715007781982	239.715530395508
16.0097255706787	22.3895359039307	240.614883422852
16.4097671508789	22.6909065246582	240.053161621094
17.9728145599365	22.5087814331055	239.539505004883
17.5808277130127	22.8100452423096	239.737640380859
18.4359359741211	23.2763423919678	238.966247558594
17.8080081939697	23.3335132598877	239.352584838867
17.3540344238281	23.3984203338623	239.385055541992
17.1391201019287	22.9814205169678	239.750350952148
17.8282184600830	24.5915241241455	239.042190551758
17.6020317077637	24.4832801818848	239.178695678711
17.7651062011719	23.9047565460205	239.196960449219
18.0830059051514	23.9938964843750	239.005874633789
17.3095874786377	24.4083557128906	239.172180175781
17.3930683135986	23.8812503814697	239.208923339844
16.7615165710449	23.0129337310791	239.555740356445
16.5295276641846	22.9069595336914	239.198883056641
17.0017871856689	23.3880558013916	239.197814941406
16.8088397979736	23.3025779724121	238.843200683594
17.0426559448242	24.3486366271973	239.014099121094
17.0843238830566	23.8399639129639	239.034927368164
16.8682155609131	24.3131713867188	238.746643066406
16.9082260131836	23.7806797027588	238.718658447266
17.7121677398682	21.2784442901611	239.254531860352
18.1174163818359	21.7056713104248	238.866485595703
18.1594543457031	22.0790824890137	239.234344482422
17.7447071075439	21.5901775360107	239.677932739258
18.5855979919434	22.1776161193848	238.424713134766
18.6392917633057	22.6008605957031	238.744720458984
17.8591804504395	21.5253620147705	238.499267578125
18.3350486755371	21.9748439788818	238.055145263672
17.4478836059570	21.1353054046631	238.891052246094
17.0266265869141	21.2027130126953	238.685760498047
17.4702682495117	21.5920391082764	238.236938476563
17.9764728546143	22.0369319915772	237.748809814453
17.1057834625244	20.7915229797363	239.204437255859
16.6542396545410	20.8619155883789	239.060028076172
17.3704090118408	20.8930912017822	239.569305419922
